149.5590185883 2.1190977861 21.651423 21.6751
149.9298556601 2.1194605522 22.81325 22.974918
149.5653336192 2.1188436949 21.354712 21.315737
150.647728391 2.1175607734 20.131426 20.453661
150.5418563897 2.1188084243 21.06468 21.115406
149.805220416 2.1200202575 22.934807 22.895947
150.4776660627 2.1200563219 22.29867 22.460133
150.4049285775 2.1208479457 22.707415 22.72163
150.764113789 2.1210184566 21.963167 21.970678
149.8148295104 2.1192130461 20.536638 20.534754
150.7533702323 2.1211260018 22.106428 22.043264
150.734819285 2.1207737273 21.072538 20.988352
149.467861037 2.12137458 22.717962 22.689436
150.7673557574 2.1216061616 21.857435 21.826458
149.7833906257 2.1214661271 21.523756 21.461266
149.8725487936 2.1223027041 22.077496 22.082745
149.5442516114 2.1217700864 20.968147 20.935614
149.90391811 2.1216074491 21.041529 21.074633
149.6679455826 2.122303318 22.620676 22.620434
149.9248687939 2.1216095081 22.299774 22.317135
150.5566214734 2.1234039903 22.654825 22.692255
150.5791477782 2.1232163479 21.58744 21.573153
150.0302232163 2.1242851191 21.330166 21.223366
149.7342730162 2.1231252618 21.945047 21.940622
150.4850911391 2.1245116187 22.985079 22.959457
150.1705965676 2.1246016421 22.652666 22.70002
150.1403282934 2.1241859643 22.318392 22.447586
149.6427292558 2.1253867528 22.625502 22.7526
150.3400896605 2.1253736586 21.902966 21.850386
149.5387062498 2.1257151245 22.699186 22.902378
149.5171661825 2.1262909435 21.87762 21.87538
149.5662478437 2.1262294027 22.410461 22.60868
150.0970954587 2.1267242042 21.800215 21.760008
150.3399049271 2.1270851016 22.489733 22.460302
149.7966543239 2.1254298114 21.115665 21.053864
150.3478177248 2.1261258444 21.625011 21.57632
150.4905862354 2.1253997527 20.3972 20.319248
150.12164238 2.1273994402 23.020819 22.913996
149.8974598035 2.1261954662 19.118189 19.03324
150.5523741326 2.1280041337 22.320242 22.296879
150.5255340163 2.1270671069 21.709684 21.647984
149.9740640732 2.1283277227 22.88411 22.938736
149.7945814484 2.1276488411 21.293364 21.26196
150.0165149095 2.1285250143 21.966124 21.873724
150.7397455314 2.1280716568 22.830164 22.667171
150.4675815573 2.1276388752 21.454779 21.41446
150.5719681461 2.128340558 21.08271 21.105267
149.9848059361 2.1288635735 22.350477 22.377743
150.0986310285 2.1295610072 22.885506 22.75804
149.4134595721 2.1287529069 21.914536 22.113914
150.5418083877 2.1278901526 20.567543 20.517195
149.5697868657 2.1301790482 23.003374 22.968456
150.4614439717 2.1293596153 22.063059 22.170471
150.2577371463 2.128810071 20.955135 20.961735
150.5439365466 2.1291740747 20.937748 20.869188
149.648945589 2.1305508211 22.451735 22.582565
149.7741181691 2.1307058057 22.591715 22.501768
149.6806100545 2.1306065419 22.09926 22.13379
149.6945660296 2.1314251091 23.427553 22.862816
149.7583452767 2.1311634345 22.664587 22.673271
150.1765015097 2.1314596281 22.479532 22.369577
150.6997491314 2.1306339554 21.51929 21.457354
150.2332201006 2.1314694592 22.515587 22.72837
149.4313628733 2.1315196644 22.96661 22.932251
149.6953758886 2.1309539111 22.838327 22.828821
150.5097286305 2.1314477836 21.349289 21.33121
150.241203666 2.1308414799 20.783419 20.860464
149.7075420336 2.1309752041 21.365446 21.371132
150.0554954623 2.1303607289 19.764381 19.76418
149.857975789 2.131827906 21.003817 20.955559
150.6887708857 2.1316815305 20.399755 20.379122
150.0878387556 2.1321098585 22.840193 22.97456
149.5665568184 2.1332003225 22.642962 22.703705
150.1649865437 2.1328730729 22.694937 22.621208
150.0324254626 2.1327924187 21.088762 21.09084
149.5865433246 2.1330300278 21.036676 21.034472
150.5424501418 2.1333721182 22.237947 22.13642
150.4704821707 2.1338733829 22.660006 22.596603
149.6863971752 2.1337379693 22.326134 22.384209
150.208881095 2.1317828101 23.184744 22.843956
150.7805947655 2.134306247 22.24909 22.244036
150.5465011503 2.1345246127 22.412891 22.35415
150.0959416799 2.1345082015 21.886608 21.84131
149.6487538153 2.1512210564 17.022005 17.38522
149.6478905573 2.1351634058 21.966518 21.954876
149.4469501778 2.1339523106 20.74637 20.777964
149.71407742 2.1353014802 22.766088 22.78297
150.7450809904 2.1349629049 22.959578 22.821487
150.7037961489 2.1349170141 21.699038 21.689201
150.1777922588 2.1366210022 22.828753 22.851702
149.8865202889 2.1375049074 22.047033 22.001925
150.0362310851 2.1366037838 21.753563 21.807573
150.7197155564 2.1374130175 22.787958 22.841469
149.5945465377 2.1368126304 20.531778 20.479403
150.686920691 2.1375452184 22.572609 22.453302
149.4260561961 2.1376199821 22.892244 22.874838
149.4654591053 2.1345255914 19.43873 19.468939
150.3588976638 2.1367684774 20.69988 20.710125
150.0170571635 2.137804311 22.238571 22.230192
150.2703522472 2.1371861719 21.147825 21.158215
149.6207982496 2.1384925113 22.767649 22.749193
149.4401931907 2.1386829221 22.938742 22.902464
150.3976447562 2.137483065 22.442005 22.377993
149.451860601 2.1385202175 22.786055 22.7996
149.5696622745 2.1372441308 20.711905 20.736034
149.7489822899 2.1392290493 22.505432 22.401636
149.8676017267 2.1388649407 22.85297 22.719439
150.0156857662 2.1394237685 22.451668 22.538141
150.6493255662 2.1394635832 21.786446 21.753508
150.4691027642 2.139979315 22.753752 22.722187
150.562144093 2.1392531544 21.655407 21.574337
149.8950736874 2.1411497723 22.027525 22.072432
150.2221137545 2.1411677378 21.934519 22.112123
149.5675430106 2.1411118724 21.82316 21.798544
150.2054538138 2.1415765105 22.123436 22.168983
149.945033308 2.1423134229 22.538094 22.655134
150.0120927526 2.1418679861 21.069426 21.110476
149.4942445557 2.1413983646 20.131308 20.110283
149.6287411806 2.142403623 21.443998 21.362967
149.5389563308 2.1434811931 22.814238 22.877264
149.7942977658 2.1429849453 22.387138 22.462168
149.9125728331 2.1429870499 22.327711 22.283335
150.3978990735 2.143170137 22.070662 22.15759
149.4884822954 2.1429492928 21.631952 21.602095
150.7480206487 2.1437816119 22.298931 22.315834
150.6911361684 2.1445934469 20.47416 20.352629
150.455751267 2.1431740355 21.100801 21.135391
150.7697602657 2.1435142275 21.681477 21.629215
149.8121572156 2.1441312443 22.693329 22.683891
149.4991751987 2.1438196099 21.746769 21.808645
150.3873223279 2.1438540954 20.605352 20.603203
149.6429178695 2.1452371772 22.60099 22.606388
149.7374557291 2.1450405209 22.729778 22.666975
149.4163835383 2.1445976795 21.368738 21.351694
149.4226163949 2.1451479612 21.410408 21.458239
150.5326516312 2.1450293044 21.593052 21.524218
149.7432084164 2.1459781136 22.496082 22.394978
149.9022397209 2.1459218721 21.498766 21.548512
149.4501412999 2.1444998971 20.300142 20.289911
150.3336696659 2.1465620259 22.3366 22.359835
149.9081981517 2.1456776083 21.53 21.462698
149.6860288102 2.1456369734 21.665453 21.6694
149.7931335777 2.145888884 20.68472 20.664833
150.3487776334 2.1463299377 21.910625 21.81174
150.475843773 2.1459494394 21.067976 21.091602
149.7306229699 2.144407619 20.367765 20.364422
149.9509250516 2.1469748848 21.130413 21.165878
150.6477521362 2.1464930914 20.497473 20.488272
150.7163348817 2.1470312088 21.275223 21.318367
150.5858796752 2.1468518736 21.095402 21.12351
149.5462565008 2.1477872791 22.177011 22.27151
150.4866106831 2.1464511207 22.005066 22.172455
150.3826747764 2.1484060568 23.166664 22.904617
149.9164199435 2.1483872324 22.550404 22.57907
149.4590403063 2.1466372736 20.107195 20.095505
149.9558315191 2.1482791081 21.390339 21.331501
150.0499957409 2.1434625161 21.901217 21.776628
150.3975152385 2.1480469281 20.785938 20.753008
150.4791608431 2.1473525999 20.290833 20.2828
150.6277596821 2.1487540832 21.626656 21.580837
150.1206109855 2.1481429523 21.396818 21.403334
149.8744057862 2.1495597624 22.706915 22.772238
150.0486450512 2.1450694242 21.539085 21.352097
150.0060964821 2.1493955112 22.047531 22.060194
149.5521018554 2.1500749894 22.432253 22.330933
149.655576604 2.1455300076 20.194202 20.625751
150.7367568651 2.1504970344 23.610088 22.966503
149.4733946146 2.1483135398 20.003424 19.975563
149.9447780684 2.1504496143 22.382288 22.452421
149.9638055053 2.1510717152 22.197506 22.497477
150.4554303233 2.1512703641 21.67321 21.655567
150.2930100391 2.151697476 21.770844 21.803371
150.5678200116 2.1504382515 21.432354 21.370436
149.6595177206 2.1590946098 19.530315 19.570137
149.4320480208 2.1523589262 22.784039 22.863369
149.634636117 2.1478523642 18.435167 18.284586
150.0093339925 2.1522617056 22.01448 21.985931
149.5860674152 2.1524967789 22.394476 22.612186
150.5591806878 2.1525493004 22.735306 22.75226
149.434577888 2.1519215055 21.39764 21.44382
150.3526047711 2.153370002 22.859129 22.9008
149.5948142776 2.1523995042 21.832712 21.912556
150.142822649 2.1515502804 20.480873 20.619665
150.653001411 2.1524601075 20.963808 20.970177
150.6963404111 2.1537891792 21.48913 21.503988
150.6625484619 2.1545260235 22.531515 22.421797
149.5597520316 2.1543716503 21.841751 21.726454
149.6874819797 2.1546049765 22.482218 22.351469
150.0198775937 2.1544145804 22.054487 21.98301
150.1526120315 2.1534207801 21.366503 21.411682
150.0881721257 2.1551843149 22.236555 22.188505
149.5815016391 2.1552075402 22.446478 22.345098
150.7245210545 2.1548449469 21.636223 21.613207
150.7322850604 2.1546308052 21.237967 21.152288
150.391329837 2.1552221334 22.45911 22.4491
149.9360729238 2.1554113594 22.688877 22.62027
150.5114635695 2.1550515767 21.404509 21.350687
150.4808215319 2.1562483017 22.16205 22.14099
150.5590312144 2.1553321714 21.146906 21.13231
150.7076058581 2.1571464039 22.769373 22.85105
150.1991653849 2.1573924363 22.25573 22.270144
150.5728624306 2.153630302 19.739431 19.751556
150.128860695 2.1550905481 22.226377 22.349794
150.4972602266 2.1576788624 22.890306 22.299082
150.506524265 2.156817081 22.57756 22.366882
149.7372447473 2.1572213762 21.78127 21.761755
150.3642872784 2.1587915264 22.77223 22.730206
150.3436860233 2.1582859248 20.810375 20.81139
149.8903213167 2.1581379392 22.383709 22.300062
150.5037880236 2.1575423188 22.277027 22.590885
150.233645566 2.1587445565 21.30728 21.29734
149.5929137235 2.1587711739 21.904434 21.84721
150.4461379714 2.1589254316 21.33462 21.25526
150.7562607802 2.1598380751 22.777172 22.834347
150.1634642404 2.1594037836 21.760353 21.692968
149.6750772387 2.1552791928 22.61794 21.735584
150.7323853253 2.1592172251 20.919012 20.960777
149.6859176798 2.1588421002 20.701672 20.671679
150.0101753679 2.1603526326 22.445347 22.48689
149.4415050261 2.1595261908 22.174425 22.179749
150.6313469743 2.1603837473 21.82446 21.787489
149.4266703428 2.1597180714 20.783213 20.774813
150.5115309759 2.1597730741 20.823885 20.8323
150.1094995899 2.1610489294 22.62073 22.716372
150.755402788 2.1610260118 22.60321 22.43192
150.071685824 2.1596030331 20.909174 20.892595
150.1782223741 2.1606000785 21.814384 21.76021
150.1174742885 2.1608829661 21.537094 21.495375
149.6102171753 2.1605320313 21.038034 21.138962
150.1309663685 2.1616048754 22.157795 22.179558
150.3859372037 2.1622020833 22.991907 22.85951
150.6266153891 2.1612410246 22.148338 22.039515
150.7640283726 2.1619495381 22.583769 22.677917
149.5353777909 2.1617321733 22.2896 22.309448
150.4228076496 2.1613485202 20.720179 20.729546
149.7353724524 2.1631299571 23.022173 22.934736
149.7457355758 2.1628316809 21.887812 21.866516
150.6968393641 2.1637410622 21.934202 21.886652
149.7317360851 2.1640541845 22.600811 22.543402
150.4664429315 2.1642497784 22.696949 22.666262
150.7382534452 2.1639341467 22.161434 22.069887
150.4785209897 2.1638634932 20.8582 20.850746
150.3181218213 2.1651017703 22.929586 22.340603
149.8229956621 2.1602309347 21.560528 21.616865
150.0910635551 2.165088877 22.561157 22.66096
150.274253868 2.1649611051 22.071678 22.096333
149.6468162815 2.1649420819 22.28793 22.213932
150.1249443777 2.1638472902 21.484423 21.540438
150.1740053484 2.1650803143 21.7077 21.721586
149.486972085 2.1648900221 22.210812 22.23846
149.7169727067 2.1649235726 21.98873 21.987349
149.4773423265 2.1660040888 22.246977 22.245968
149.943613215 2.1655724532 21.94771 21.829453
150.5613377113 2.1652446503 21.541746 21.50199
150.4156940615 2.1660256333 21.647877 21.684643
150.5561992561 2.1665525922 22.842474 22.969223
150.3473419889 2.1674515108 22.79881 22.625273
149.8412896572 2.167743747 22.831676 22.855972
150.0802527702 2.1670473282 22.468687 22.480211
150.2988699354 2.1677181842 21.645475 21.622005
150.2286712166 2.1663488274 20.938354 20.936495
150.2585579248 2.1677156384 21.427977 21.492468
149.7799976245 2.1680851462 22.291191 22.560915
149.4997047131 2.1685911793 21.984243 21.935308
149.9696752103 2.1688348084 21.630821 21.480204
150.0184681779 2.1689510985 22.396317 22.360132
150.7344107964 2.1669529934 20.678783 20.734911
150.3830321285 2.1685705801 21.899595 22.069353
150.0862024729 2.1687427348 22.174696 22.180237
150.0090885667 2.1690876657 22.791517 22.659561
149.7020385181 2.1688651972 22.980358 22.892315
150.2268175529 2.1688631505 20.122854 20.037079
150.4284580625 2.1691875329 23.03461 22.923498
149.9890420977 2.1696285719 21.729095 21.707596
149.4638797352 2.1695633513 21.561878 21.536442
149.4926345919 2.1699206817 22.752544 22.554564
150.7423696129 2.169018646 23.44604 22.817097
150.3889157218 2.1714377843 23.535328 22.812809
149.8347959364 2.1707363347 22.7935 22.875162
149.7391738499 2.1696169834 20.185678 20.180847
149.9139668714 2.1713690833 21.973677 22.059555
150.2354325676 2.1710755595 21.835257 21.866894
150.290862428 2.1725796532 22.9369 22.819864
149.7698890529 2.1722161532 22.497692 22.492895
149.5027847825 2.172024383 21.436779 21.436663
149.7222115391 2.1728829136 22.766373 22.679663
150.364722034 2.1733235797 22.026697 21.994234
149.9504848258 2.1737942111 22.491602 22.517853
150.1751032539 2.1725920072 21.66168 21.75683
149.590921504 2.1736683501 22.074116 21.947042
150.2456790128 2.1735805434 21.033327 21.066647
149.8367961086 2.1730600246 22.474184 22.369158
149.4785431925 2.1734800236 21.704205 21.719267
150.0013865175 2.1742471267 21.610598 21.60185
150.6698513742 2.1737103841 20.96287 20.897718
150.3042516557 2.1711810949 20.60526 20.62536
149.4201148098 2.1761738227 22.510267 22.565199
149.9906394601 2.1767002399 22.898447 22.970606
150.6146964453 2.1770616895 22.95913 22.882397
150.0815490615 2.1757599636 22.58633 22.547235
150.3379698965 2.1768091477 23.037113 22.731703
149.5554848773 2.1752350753 21.019596 21.049673
150.2704512968 2.1773915478 22.082373 22.140667
149.8511249335 2.1804430973 21.224628 20.85742
150.018052362 2.1779244577 22.156635 22.275179
150.1795084362 2.1780107657 22.52612 22.606527
150.4811208112 2.1780607741 22.586012 22.546658
150.580379233 2.1770146236 21.147284 21.071585
149.7289344462 2.1774744729 21.322866 21.314754
149.5713015662 2.1780215584 22.939528 22.997099
150.5920569894 2.1782763273 22.452938 22.418816
150.6600369158 2.1778350165 21.194695 21.100958
149.751502473 2.178819202 22.826235 22.979116
150.4068373414 2.178532541 21.74225 21.753849
149.8096873129 2.1776762036 20.828402 20.835169
150.3546507144 2.1797400377 22.144613 22.10502
149.8408418434 2.1801733108 22.539507 22.484451
150.7229722229 2.1800202661 22.036438 22.000023
149.769167146 2.180996632 22.578743 22.642717
149.9109549036 2.1815528437 22.820917 22.786467
149.8725233916 2.1813093402 22.080437 21.941902
150.7530903316 2.1806895947 22.263105 22.237045
149.64193568 2.1808411526 21.133343 21.171959
150.5133288724 2.180615721 21.87101 21.769186
149.5914443593 2.1804661312 21.381956 21.32124
150.3656561064 2.1801325239 21.159616 21.162619
149.7201797808 2.1810286147 20.948092 20.8077
149.5722253559 2.181426264 21.37364 21.32679
150.3312064355 2.1828621838 21.21165 21.231182
149.5619220257 2.1835423415 22.462984 22.558626
150.1507596598 2.1834677218 22.065077 22.192123
149.459998382 2.1834821974 22.063118 22.037855
149.6512730872 2.1843658714 22.066673 21.997152
150.0763026161 2.1838603201 21.939554 21.841686
150.2123676071 2.1848009404 22.926315 22.978647
150.7237521485 2.1849592522 22.764162 22.913507
150.7290947139 2.1842341595 20.83989 20.873028
149.8521150016 2.1817605988 21.806301 22.022856
149.735775725 2.1850439117 21.63333 21.588566
149.7153553941 2.1860410926 22.186947 22.200212
150.3848591591 2.1865981537 23.013885 22.992386
149.7823178933 2.1855348405 22.651846 22.739819
150.4410133343 2.1863091291 22.281162 22.290844
150.3763858533 2.1869676945 23.084913 22.925903
149.4737947842 2.1862773343 22.195587 22.265173
149.8283011802 2.1869391243 21.874731 21.809326
150.6773429808 2.1861876025 21.043459 20.980883
150.5060328192 2.1877622588 22.643654 22.677013
149.5011324142 2.1875049308 22.005068 21.87121
150.3141944304 2.1877565298 22.174253 22.187124
150.1625692728 2.1865327827 21.205988 21.237309
150.4613629556 2.1868229153 21.367636 21.33488
150.1771599553 2.1877205436 22.215414 22.416151
150.7353519493 2.1882960067 22.601713 22.537313
149.8046177421 2.1878959297 22.74958 22.816063
150.3086747349 2.1886727717 22.21058 22.227306
150.7391021274 2.1883276111 20.851948 20.844467
150.3902972749 2.1895093805 22.0613 21.94837
150.0712181538 2.1900536331 22.526594 22.530125
149.5415928979 2.190731552 22.111532 22.050392
149.4155972049 2.1908949767 22.520918 22.468805
149.8391241702 2.1868780024 20.543554 20.477488
149.4566377498 2.1905169263 21.85104 21.904509
150.0191851451 2.1910795648 22.185843 22.147959
150.0402215135 2.1916565705 22.962296 22.82487
150.5105957422 2.1914477758 22.659372 22.645428
149.6850454347 2.1913821862 22.420757 22.485744
150.277665625 2.1913994926 21.558712 21.528517
149.7493345259 2.1913278144 21.964523 21.986742
149.9097799968 2.1918127609 22.93348 22.846066
150.669125126 2.1910253762 22.661161 22.443262
150.1759171861 2.192098233 22.567768 22.55801
150.5168824314 2.1927463503 22.880836 22.857458
149.8920563893 2.1927047138 21.567932 21.639357
150.2513770987 2.1931343621 22.930262 22.86156
149.5411528477 2.1941158736 22.778255 22.78466
150.2354565879 2.1923308844 20.453188 20.426525
149.9352197042 2.1939246597 22.010824 22.100693
150.5209429316 2.1945856503 22.540358 22.521523
149.7059626567 2.1934407303 21.047598 21.059587
150.2077876032 2.1947044649 22.576033 22.578056
150.410450092 2.1944438731 21.986761 21.995192
149.9315554757 2.1943839604 21.129652 21.135025
149.5225871139 2.1940121457 20.752188 20.699537
150.1385359296 2.1947436909 22.573158 22.530113
150.638839706 2.1951087463 22.487175 22.424046
150.4195172205 2.1955272428 23.062294 22.884106
150.1741972641 2.1961480645 22.942068 22.964628
149.8978121493 2.1953289983 22.00395 22.126572
150.2630872866 2.1956859931 23.353498 22.972408
150.0398937892 2.1956077038 21.870132 21.899582
149.8838067505 2.1957742349 22.12722 22.131788
150.1128387086 2.1965115161 22.839682 22.925344
150.2195525736 2.1956191793 21.799526 21.740297
149.9168823446 2.1958699325 21.094965 21.119366
149.9190732459 2.1966692771 21.80361 21.699183
149.9711171751 2.1973049676 23.04901 22.80539
149.6426544171 2.1968513315 21.568953 21.552597
150.2564750326 2.1975090772 22.710157 22.597418
150.5358573817 2.196689963 21.594883 21.46005
149.7161408851 2.1968067505 21.318502 21.253378
150.130172483 2.1954828977 21.142704 21.15937
149.7827388717 2.1970206499 22.363413 22.420876
149.8684978009 2.1975203836 21.733225 21.68544
149.9366607603 2.1981513011 22.451807 22.485476
150.2890117062 2.1970469934 20.663437 20.648245
149.8152688916 2.1966786995 20.956305 20.894232
149.8879255806 2.1977841401 22.297571 22.342606
150.2302747038 2.19739736 21.389292 21.281727
150.3851335709 2.1976145276 21.728941 21.728971
150.5355997936 2.1977625243 21.91187 21.935968
150.2443187904 2.1994622801 21.2396 21.174778
150.1310574691 2.1971813172 20.803106 20.850096
150.3554467654 2.1987846947 21.97171 22.040867
150.7655887694 2.1989336534 22.545195 22.626007
150.7255709187 2.1987663689 21.538948 21.52639
150.395500815 2.1984625606 22.140978 22.1367
149.814199656 2.19863488 21.489176 21.510998
150.4068782075 2.1984913937 21.571674 21.53127
150.3632588979 2.1994003787 22.330639 22.384302
150.2689758852 2.1994909161 22.335285 22.164322
149.8777729969 2.1982046829 21.130487 21.1692
149.926299114 2.199752329 22.627357 22.859978
150.3537358135 2.199269097 21.375229 21.329298
150.361756208 2.1992555188 21.299664 21.280615
149.7790720562 2.1992273545 21.882767 21.88559
150.3976548476 2.2000332075 22.189064 22.151562
150.2931744351 2.1998445019 21.395575 21.348034
150.2904550222 2.2011867151 22.28093 22.281092
150.6156635113 2.2014947628 22.434334 22.327381
150.7621562252 2.2017887913 22.654474 22.589325
150.7297800043 2.2020234853 23.046461 22.842693
150.5130057569 2.2021058721 22.51866 22.603882
149.9649600963 2.2018608615 21.927818 21.879711
150.5029666179 2.2021139862 22.805271 22.803259
149.9160495787 2.2019192929 21.212698 21.154846
149.671637095 2.2023266486 22.481388 22.42858
150.4121928205 2.2027537559 22.64036 22.594194
149.5422260431 2.2028504854 21.684172 21.704132
150.1315126505 2.2032802327 22.759813 22.76876
150.3582120164 2.2040036314 22.760487 22.726955
150.3694689137 2.2039319948 22.603397 22.465828
149.6481109708 2.2040891445 22.351572 22.385
149.9004714049 2.2036697138 21.667921 21.682425
149.764473137 2.2025730683 20.802656 20.735563
150.0714624933 2.2037553015 22.967867 22.958601
149.981507967 2.2037232208 21.932367 21.947727
149.8554474356 2.2035618422 22.00369 22.015442
150.1141451418 2.2037439195 21.165504 21.226715
150.5636839307 2.2029333255 20.522156 20.55126
150.5541608503 2.2048186149 21.942482 21.88794
150.2654928793 2.2045070192 22.38439 22.27255
149.8090884415 2.2044260656 22.48803 22.437532
149.7373947395 2.2048647102 22.5574 22.672077
150.5933727968 2.2052264628 21.673431 21.627731
150.7588491728 2.2048783834 22.390642 22.733522
150.7259126599 2.2046195833 20.289469 20.188984
149.7138834492 2.2038094276 19.648905 19.61273
149.5741357029 2.2060003478 22.712038 22.616905
149.4460182769 2.2057044386 22.84639 22.800776
150.6591990151 2.2058921294 21.954517 21.9936
150.1161292039 2.2055925672 22.143496 22.042889
150.5912050265 2.2041158318 21.433064 21.436792
149.689064972 2.2055830362 21.053041 21.05365
150.0417186331 2.2060835861 21.176037 21.192833
149.873319222 2.2072006656 21.28057 21.17369
150.557383142 2.2064106511 23.256863 22.509182
150.5099879413 2.2059135135 20.57765 20.461866
150.3317696394 2.2075099201 22.149054 22.078253
149.7350488268 2.2071707604 20.919117 20.939926
150.1010030382 2.2079562277 22.24123 22.18376
149.857931471 2.2079904914 22.45001 22.507935
150.5927000172 2.2091525979 22.804232 22.730255
149.7471563109 2.2093414607 22.57561 22.552002
150.1579468018 2.2083626074 21.869654 21.896147
149.7831666033 2.2090286562 22.099072 21.964794
150.3778529637 2.2087020048 21.068302 20.957397
149.724808255 2.2087740423 21.90678 21.814795
149.7474789953 2.2086069634 22.521082 22.684155
150.2901842548 2.209424049 22.471977 22.568968
149.9309566592 2.2102107014 22.351082 22.303324
149.5328317486 2.2068937084 18.649273 18.60351
150.5551104662 2.2092763472 21.9086 21.948286
149.6490685585 2.2097376956 21.15402 21.072758
150.0626583725 2.2111584701 21.55313 21.456686
150.7555309089 2.2120775231 22.652977 22.588278
150.6010888016 2.2114221067 21.36906 21.222254
149.9046181061 2.2122144403 21.763376 21.676146
150.2249930638 2.209741898 22.19092 22.157005
149.6234199323 2.2126712783 21.639866 21.593939
150.541209309 2.2122543446 22.081923 22.062147
150.0534582153 2.2127022247 22.188406 22.076372
150.1896567721 2.2128923982 22.449553 22.544645
150.3073915117 2.2129396775 21.28934 21.272154
149.9572131326 2.2127840488 20.876175 20.876188
150.1717446868 2.2130280504 21.745146 21.752605
150.6362905851 2.2134742544 22.404093 22.417805
149.5787831173 2.2125325542 20.825024 20.826368
149.9255742518 2.2138420794 22.341183 22.312477
150.0878950713 2.2116410405 21.389503 21.366983
150.3564014876 2.2137941958 22.125782 22.064255
149.4689109978 2.2122103392 22.340242 22.322311
150.0617834661 2.2137526671 22.030071 21.982323
149.5458436668 2.21352101 20.746403 20.695114
150.6991735103 2.2145097175 23.05159 22.95358
149.5339895594 2.2132402038 20.913631 20.839102
150.1505929409 2.2141072092 21.289175 21.291264
149.9139183546 2.2148040308 21.822067 21.863487
149.7879725489 2.2156320261 22.929977 22.931879
150.232583411 2.2144678825 21.223728 21.236217
150.2828462106 2.2153863692 21.121292 21.019629
149.6818855524 2.216155968 22.673412 22.701015
150.3597840438 2.2172993023 21.494326 21.39357
149.9890430899 2.2167345844 21.967224 21.964817
150.0242459524 2.2163589858 22.327993 22.251814
150.0927320772 2.2155208917 21.679596 21.590117
150.7712629329 2.2175638841 23.136326 22.769123
149.8322852896 2.2171827758 21.629522 21.557373
150.3884015466 2.2181783483 22.292675 22.19775
150.7593750481 2.2173773998 21.691195 21.748451
149.980747976 2.2174143131 20.626596 20.607847
150.5726024783 2.2176343516 21.2791 21.292671
149.6972564292 2.2182336764 21.795345 21.843283
149.9759045622 2.2181303207 21.474377 21.343079
150.4983054528 2.217377612 20.386034 20.360542
149.6611056828 2.218732863 22.063557 21.90958
150.6582062354 2.2186365523 21.966944 21.976765
150.2263680329 2.2187419013 22.335781 22.33892
150.1871210866 2.2183207849 22.501709 22.42235
149.8063263725 2.2166364342 20.069065 20.009563
150.6203093894 2.2183055107 20.617966 20.57496
150.2029649618 2.2186935036 21.737305 21.724495
149.6850572344 2.2201189569 22.239164 22.198132
149.6575906146 2.2207844682 21.76949 21.682156
150.6156536806 2.2217992327 22.909916 22.888184
149.7824554033 2.2215767034 21.997398 22.08305
150.6079832521 2.2209950711 21.913942 21.928938
150.0546841448 2.2220204733 22.812199 22.680233
150.4109734848 2.2216155097 22.06283 22.096573
149.9576851038 2.2221352468 21.933416 21.826782
149.6987009834 2.2224114342 21.969507 22.009108
150.0596568753 2.2233800683 22.657068 22.628464
150.370357145 2.2230780978 22.317085 22.302765
150.1451109186 2.2235057032 22.15056 22.303728
150.5327746 2.2231804189 22.299366 22.348444
150.5515436437 2.2233172259 21.974566 22.016764
150.1766622469 2.2238904183 22.97518 22.98659
149.782373891 2.223518098 21.70439 21.7799
149.9161724947 2.2233839981 22.249514 22.052588
150.1748318204 2.2244358278 22.394114 22.397562
149.8452999147 2.2234995851 20.801222 20.793964
150.7456710405 2.2242763417 21.5758 21.673046
149.7317326545 2.2246917972 22.166958 22.23277
149.9704661148 2.2245256923 21.168217 21.140434
150.2670075343 2.2225093123 18.421373 18.407766
150.621301126 2.2261084078 22.222868 22.301516
149.6307685061 2.2251240603 20.257444 20.209646
150.0578852824 2.2258566615 21.555607 21.551147
150.0458280472 2.2266843225 22.853355 22.751772
150.6108485268 2.2265030494 22.352613 22.241596
149.8057365056 2.225952556 21.239994 21.183886
150.5609647825 2.226405007 21.664358 21.6408
150.5659133072 2.227651576 22.525715 22.584572
150.2842128765 2.2276947869 22.42523 22.569551
150.6352658985 2.2283246693 23.702938 22.906977
150.0610723166 2.2277587525 22.781534 22.90525
150.7236150496 2.2276182961 21.599655 21.643549
149.9325143888 2.2285287933 22.391993 22.29956
150.3624703187 2.2292327073 22.76583 22.60371
149.7819114084 2.2295899651 22.516668 22.457079
150.7700056332 2.2296814635 22.024927 21.955843
150.5271806246 2.2294366418 22.445704 22.45627
150.6558839925 2.2296706766 22.450571 22.409481
149.9079829533 2.2295505518 21.446793 21.501413
150.5952508611 2.2301040826 22.74751 22.780653
149.7153519007 2.228149211 21.400024 21.462952
149.4508172807 2.2292417539 22.13807 22.372385
150.5093447814 2.2294960874 22.6635 22.6867
150.0824099715 2.2294927778 21.943203 21.940115
150.5529841924 2.2298863693 20.641073 20.578236
150.0231416816 2.2300050673 21.135818 21.120045
149.7218379068 2.2314998348 21.561954 21.610058
149.8996230601 2.2311323565 21.791475 21.697197
149.8186324752 2.2315889209 22.00964 21.943787
150.4770690268 2.2324299737 22.249763 22.167887
150.2493431202 2.2324706788 22.0999 21.994816
149.9328369902 2.2328968047 22.321001 22.239977
149.7277691272 2.2324477227 22.98919 22.95924
149.4331681544 2.2306453616 19.848131 19.793709
150.2487917763 2.2331612773 22.46989 22.4796
150.3224372659 2.2321563748 20.651628 20.675886
150.0118837633 2.2324015884 20.952204 20.963118
149.8354802275 2.2321260557 20.82879 20.845377
150.7436966944 2.2333044488 20.899792 20.899803
149.7588872996 2.2338636439 22.54643 22.533478
149.5540351586 2.2338492577 22.024622 22.070166
150.003065668 2.2346695244 22.453756 22.520668
149.5210814074 2.2337717104 21.43156 21.42121
150.5491635625 2.2347226339 22.74805 22.807932
150.7159942259 2.2352838124 22.644701 22.63486
149.7106215732 2.2340269083 21.494007 21.434477
150.238412542 2.2354221879 22.970419 22.942705
149.8928539257 2.2350486182 21.476341 21.505888
150.6078912607 2.2369954325 22.962585 22.828222
150.4737794433 2.2364162274 22.267704 22.259855
149.7061212376 2.2374196151 22.902609 22.86329
150.074487386 2.2371559677 22.32756 22.29039
149.8276738364 2.2376333558 22.909245 22.927052
150.2812388321 2.2378879923 23.1951 22.950222
149.6405504425 2.2368461405 21.218874 21.235346
150.0205767615 2.2378252784 21.890125 22.01083
149.9074300404 2.2380132805 21.313803 21.221046
150.7081079426 2.2370548287 20.482683 20.444529
149.7801547242 2.2384811994 22.42314 22.362242
150.1090009607 2.2369892936 21.24083 21.213667
149.6487578626 2.2385873886 21.440945 21.41932
150.3563851249 2.2399917757 22.571262 22.456644
149.5717412969 2.2396463062 22.090721 22.040064
149.6543119597 2.2393397818 21.791412 21.856323
149.7867470546 2.2401352503 22.912909 22.78211
150.0620564943 2.2395594813 23.112625 22.915829
150.2471494847 2.2396450472 21.368822 21.391123
149.8305894628 2.2394991111 22.039574 22.042675
150.6411093314 2.240752823 22.55265 22.723202
149.9856174284 2.2416273433 23.102448 22.980556
150.5889302902 2.2416956923 22.650284 22.798906
149.4974750447 2.2407931629 22.10642 22.099522
150.3579508717 2.241919436 22.238674 22.154053
149.833878092 2.2416861863 22.966383 22.94087
150.0855069718 2.2396891793 20.162617 20.115942
150.4535465034 2.2410876586 20.632586 20.6132
149.9980624907 2.242048605 21.318201 21.325346
150.061025025 2.2420064277 21.950869 21.936722
149.6441815537 2.2421218186 21.87976 21.812172
149.517970227 2.2416785583 20.367441 20.358988
150.1605410375 2.2419915189 21.219511 21.21633
150.5151883285 2.2422549138 21.452757 21.466827
150.268150287 2.2435574298 22.638561 22.571692
150.3364056905 2.242601292 21.039026 21.07371
150.0404410338 2.24341096 22.767157 22.730595
150.3320635371 2.2432199402 22.36514 22.347313
149.8591550359 2.2427390161 20.908497 20.898457
150.4515838531 2.2421749897 21.74073 21.878365
150.4197098858 2.243458005 22.098036 22.127377
149.7913997966 2.2436107661 22.404324 22.419617
150.3846286602 2.2429913449 20.78796 20.75359
150.0818237082 2.2408306301 19.182531 19.21876
150.3678477618 2.2439796938 21.708748 21.375135
150.7430129987 2.2433649845 22.926622 22.839802
150.773558861 2.2438666878 20.868507 20.834074
149.9757319598 2.2448931082 22.578281 22.56729
149.4263628975 2.2445422627 22.400194 22.544765
149.8563695661 2.2452489689 22.236582 22.304718
149.9781411473 2.2453145142 22.743778 22.77198
150.1603843465 2.2459892101 22.702549 22.785482
150.1591060762 2.2461541213 20.602169 20.581059
150.2497048648 2.2470378141 21.986088 21.876934
149.4120385246 2.24778048 22.405445 22.410254
150.3309247924 2.2473186018 20.70966 20.662857
150.0490806843 2.2486121221 22.36237 22.365057
149.5696649023 2.2487811551 22.180445 22.122585
149.4618407836 2.2480531764 23.05239 22.99063
150.4735257871 2.2484174063 21.11006 21.079245
150.0543183634 2.24908527 21.2781 21.251081
150.2255460566 2.2497202326 21.802523 21.832386
149.767441944 2.249795824 22.042574 21.912842
150.2747831334 2.2498646755 21.179226 21.13391
149.6282931558 2.2495699744 21.374098 21.298407
150.7127413054 2.25043835 21.562456 21.510693
149.7585765371 2.2504242055 21.630611 21.530022
150.157279837 2.2514459715 22.8254 22.82373
150.5586930988 2.2498189434 20.36615 20.352947
149.5721495974 2.2514273456 22.034119 21.987371
150.6391394497 2.2512615908 21.502855 21.48183
150.301330759 2.2494867358 21.366207 21.344893
149.5444378953 2.2519559873 22.145782 22.173113
149.7936378429 2.2520701997 22.880653 22.97698
150.2593410336 2.2511241184 20.561432 20.513407
150.232168158 2.2517648332 22.407412 22.319399
150.7135078161 2.2521805241 22.015469 22.2651
149.5920380895 2.2523426509 21.401941 21.403723
150.3428315377 2.2523220297 21.505732 21.47653
149.5703959824 2.2520406138 20.990316 20.967634
149.9240487021 2.2535821841 22.86591 22.979006
150.2176570323 2.2526940448 21.193268 21.1292
150.0402767802 2.2536884375 22.558096 22.451239
150.7211356148 2.2541263243 21.96709 21.972757
150.2561647229 2.2540857085 23.062248 22.873392
150.264547457 2.2546238579 21.882935 21.954817
150.4939724771 2.2544522123 22.160362 22.13321
149.6328021721 2.2545566902 21.029737 21.0337
150.5145627451 2.2539862726 20.975397 20.949938
149.4802186987 2.2546331411 21.173203 21.15813
149.4647874993 2.2548996009 21.992495 21.973372
150.1359117957 2.2561438853 23.0057 22.934166
149.7246328621 2.2561204162 22.159157 22.18197
150.0846253857 2.2560587267 22.431084 22.373228
149.8970475659 2.2558786568 21.310562 21.245909
150.3443444823 2.2558650136 20.564384 20.515924
150.2122160772 2.2566058731 22.958393 22.942137
150.6454789288 2.2554941433 18.62765 18.564695
150.0843050125 2.2569203011 22.802069 22.7682
150.4763339526 2.2566362351 20.991093 20.97921
150.1812819413 2.2569449257 22.11459 22.377167
150.3019882614 2.2581184516 22.001226 22.051619
149.8661797885 2.2569246863 20.479212 20.516312
150.3098551589 2.2584949336 22.160997 22.090092
149.8933099801 2.2588560775 21.99857 22.02847
149.5532457395 2.2584083054 20.885235 20.752296
150.5629454217 2.2591183182 22.36329 22.47476
149.5719577997 2.2582153572 22.284727 22.185608
150.6690025323 2.2594076873 22.31597 22.286291
150.0976699462 2.2586576023 21.756496 21.755041
149.9500737638 2.2596099771 22.309095 22.250006
149.91712238 2.257497593 19.669888 19.642532
150.6542872454 2.2597207999 21.880444 21.818089
150.5315818788 2.2575578172 20.744932 20.733494
150.1814167765 2.2590318149 21.177755 21.14743
150.1679911589 2.2595347807 21.384258 21.369448
149.5673152971 2.2597861788 21.846422 21.824694
149.6511600976 2.2607222684 22.636866 22.633394
150.721500217 2.2611338622 22.119318 22.39133
149.5786199029 2.2613068359 22.90425 22.88979
150.5677266087 2.2602101871 20.950138 20.930426
150.5702127288 2.2594695001 20.001925 19.949486
150.5181458087 2.2607831324 21.259203 21.211641
149.5729562047 2.2613068506 23.041954 22.770178
150.5016776869 2.2606684734 20.765759 20.728603
150.184482991 2.2601768715 20.666725 20.902224
149.8041126236 2.2617238254 22.641151 22.594067
150.1052107482 2.2615911233 21.594452 21.57522
150.0210900778 2.2628987234 22.908949 22.866003
149.5358070439 2.2615787336 22.759243 22.988213
150.0205409304 2.2625417288 21.650991 21.72852
149.9160132871 2.2630365808 21.732393 21.642323
150.1124703644 2.2633362634 22.358229 22.311754
149.979175783 2.2631190894 21.862661 21.811222
149.4976656886 2.2616281203 20.697683 20.66029
150.6794706573 2.2635105821 22.013994 22.054203
149.7526453185 2.2629671804 21.766964 21.727362
150.0896682615 2.2634839484 21.74498 21.70466
149.6171056491 2.2636517866 20.832165 20.842346
149.8886439668 2.2635937008 23.071997 22.88699
149.920070319 2.2646121173 22.498465 22.505556
150.0887876429 2.2650023526 23.350876 22.961246
149.7336182346 2.2642675706 21.756504 21.635422
150.6640291438 2.2652234074 22.803661 22.878815
150.6817058334 2.2638137295 19.915323 19.829437
150.1586466678 2.2651815065 22.34008 22.385292
149.718354757 2.2651476268 20.83835 20.866673
150.3877927361 2.2650696694 21.465225 21.618673
150.0893111455 2.2651151615 22.936468 22.874687
150.7254250334 2.26535673 22.511137 22.353174
149.414420214 2.2658343072 22.25583 22.187256
150.725821093 2.2659422472 22.382336 22.348314
149.8838403581 2.2664665992 23.04027 22.984037
149.7923855564 2.263939604 20.536116 20.488712
150.0043089791 2.2654438981 22.881176 22.646154
150.1196797176 2.2659889043 21.941483 21.94476
149.6004462119 2.2662880911 22.224783 22.201796
149.7170421546 2.2648183752 19.941885 19.858534
150.5375299521 2.2664117807 21.699995 21.656054
150.0131132123 2.2668719088 21.511457 21.470963
149.640827793 2.2665894322 21.336214 21.395958
149.6987522171 2.2680676514 22.508234 22.456701
150.4884000123 2.2672617825 21.58855 21.655968
150.5406858227 2.2662336334 21.329191 21.177835
149.4402453726 2.2671629103 21.280533 21.21107
150.6817387977 2.2681769554 23.18027 22.932922
150.5314556295 2.2673702038 22.357635 22.396002
150.0109416848 2.2688247309 21.994059 21.974592
149.7249737121 2.2695604124 23.02928 22.943632
150.3834062249 2.2697757833 22.360462 22.318966
149.6802781977 2.2703887283 23.004568 22.910852
150.0607010136 2.2674997061 20.684727 20.756062
149.8695773704 2.2707596253 22.4364 22.807138
150.2588456376 2.2717556536 22.358063 22.301147
150.2696402322 2.2696193977 20.135822 20.165657
149.9042014573 2.2707108961 21.43757 21.413132
150.2796235368 2.2719646107 22.759878 22.64164
149.7882940854 2.2718045769 22.526491 22.524117
150.5299805874 2.2704402813 20.454084 20.404905
149.6987756444 2.2721385524 22.699797 22.67803
149.8193805365 2.2690668184 19.961329 19.917389
150.2559408399 2.2721917126 22.290483 22.288488
150.2458156343 2.2724628037 22.326244 22.316753
150.173894837 2.271699662 22.23834 22.284195
149.6046838198 2.2724209356 22.151525 22.31696
150.0835113747 2.2726463541 22.913843 22.90647
149.7053571542 2.2711886478 21.104849 21.055185
149.6368474701 2.2718835393 21.399311 21.406301
150.2951406798 2.2735113567 23.050386 22.98601
149.5136323583 2.2719189722 20.779951 20.754313
149.787315173 2.2737296445 22.822556 22.95445
150.3038023699 2.2723821576 20.985453 20.956152
149.5757493831 2.2736284355 20.980322 20.985498
149.6816227096 2.2744682401 22.44718 22.356865
150.5545764793 2.2726259824 20.302015 20.296936
149.9141371242 2.2736166764 21.859308 21.988415
150.0148515556 2.2746238665 21.943466 21.846191
149.7873512498 2.2744265252 21.803932 21.7676
149.8538118381 2.2744333561 21.234232 21.234718
150.118454311 2.2750785069 22.31415 22.33173
150.5218988025 2.2752752292 22.680975 22.689785
150.1145661641 2.2746581849 21.761345 21.713112
149.7790152874 2.2740625279 21.913084 22.132683
150.6599598391 2.2753371936 21.523226 21.507504
150.0917154128 2.2730318234 19.010403 19.015478
150.1365807191 2.2756839224 22.872494 22.320642
149.9081356538 2.2758572392 22.025154 22.102621
149.9863763947 2.2763906857 22.426529 22.462511
149.573277154 2.2761682426 21.61906 21.536444
150.2017926063 2.2749684053 20.412674 20.453327
149.6947132523 2.2758307365 21.39542 21.311127
149.760047728 2.2772475245 22.866928 22.72906
149.9133262369 2.2748225083 18.643698 18.581413
149.521096762 2.2763469953 20.482937 20.54005
150.0938381146 2.2767861877 20.23045 20.242157
149.4979525813 2.2772009921 22.6499 22.453072
149.9927728896 2.2755890812 18.925646 18.822187
150.6672916223 2.2781718349 22.629658 22.560844
150.6435431799 2.2781893159 21.245707 21.229383
150.0778610655 2.2772612914 21.010593 21.007221
149.9700791857 2.2784047551 21.26157 21.214546
150.3449521442 2.2793155021 22.075537 22.20928
149.9271693255 2.2801031104 22.305225 22.204329
150.3169336981 2.2805157942 23.12881 22.294716
149.6948193028 2.2804905009 22.652401 22.671906
150.5021522435 2.2779403301 20.854029 20.856092
149.9371574352 2.2800809721 20.729149 20.741476
149.5370270364 2.2809516165 22.117014 22.027592
149.7974595298 2.2807633623 22.91292 22.415972
149.969371214 2.2811232716 21.553625 21.586517
150.251146896 2.282330364 22.66485 22.64256
150.180567418 2.2777002205 22.19663 22.289295
150.6263586372 2.282550893 22.938667 22.904512
150.709020462 2.2827241686 22.809162 22.981718
150.5089340036 2.2814651253 20.275179 20.192648
150.6644578688 2.2832463008 20.550316 20.564434
149.6980514492 2.2832620564 22.55742 22.638275
150.1760573547 2.2827883736 21.74524 21.764359
149.7660356342 2.2844200024 22.488407 22.288118
150.1556398922 2.2841677476 22.524506 22.588205
150.7089053818 2.2843027573 21.327 21.251081
150.7557268107 2.2852012523 22.294184 22.38316
150.009836273 2.2853941206 22.172321 22.331081
149.4748714331 2.2847683871 21.50695 21.485508
150.1277145874 2.2838084147 20.216915 20.271738
149.6507821584 2.2862081011 22.50345 22.487436
149.4889527984 2.2860537544 21.445091 21.440859
150.642458589 2.2866408644 22.603638 22.883032
150.2913637823 2.2872440998 23.016354 22.881191
149.414705671 2.2867204999 22.005592 21.929846
150.6652951272 2.287139869 23.103853 22.832825
150.0943591176 2.288158377 22.563482 22.732689
150.7679787225 2.2878436492 22.737276 22.688742
150.6757530753 2.2884559121 22.043434 22.121346
150.7252743206 2.2889064721 22.993517 22.826162
150.5304281715 2.2888903919 22.39709 22.312515
150.0352644992 2.2866236649 19.931005 19.812908
150.2337902584 2.2891485533 22.593185 22.474894
150.7060629255 2.289543956 22.344217 22.384724
149.5972326221 2.2900126476 22.272158 22.301178
149.6576992727 2.2899694201 22.137386 22.076832
149.8814400392 2.2900014497 21.54107 21.591902
150.5472629325 2.2896492596 21.175545 21.303768
149.7291635506 2.2898929699 21.022516 21.031462
149.8636058656 2.2903254556 22.717436 22.66386
150.6837632469 2.2902908421 20.356413 20.308346
149.7392045165 2.2914831243 22.477354 22.435127
149.9389502387 2.2914350602 22.384863 22.372042
149.6288466308 2.2919541779 22.888084 22.946356
149.4942449274 2.2912796859 22.578331 22.457579
149.7316958607 2.2914230651 21.719118 21.644804
149.6726131389 2.292190623 22.39914 22.406313
150.1095541212 2.2915665605 21.781172 21.738844
150.610005858 2.2926655758 22.32808 22.269169
149.4885724598 2.2916296211 20.791658 20.804728
149.6241056055 2.2944398212 22.396658 22.392506
149.8221857709 2.2946614586 22.697977 22.887436
150.3785555257 2.2950468339 22.41941 22.377941
149.8661812655 2.2921717399 18.668083 18.626152
149.8253008384 2.2938737654 22.500395 22.417862
149.5779046007 2.2946093855 21.343311 21.337355
150.3456805367 2.2947262983 21.98908 21.934175
150.3231845885 2.2954268816 22.035284 22.025717
149.9668967042 2.2955762981 22.38256 22.342636
149.6771122622 2.2939333555 20.651075 20.626377
149.7006081732 2.2951103082 22.100195 22.118658
149.8108653305 2.2959531818 22.372055 22.38036
150.1780265016 2.2957851578 22.393974 22.534235
149.6674079527 2.2961890362 22.097971 22.330927
149.8628768081 2.2962467758 21.907692 21.915865
149.856219287 2.2961576667 21.077335 21.119917
150.1713189569 2.2968531859 21.492746 21.445827
150.2144986874 2.2977059828 22.574898 22.54573
149.6270746299 2.2971582013 21.847837 21.862772
150.2339224472 2.2980475734 22.800533 22.7415
150.1005284184 2.2981808256 22.457235 22.460258
149.4139775086 2.2980537094 21.305202 21.271137
149.999144482 2.2990959341 22.206 22.100077
150.0956857551 2.2976165794 19.62655 19.602861
150.6953151983 2.2985429708 22.6908 22.775051
150.5259227632 2.2976623598 21.072535 21.067225
150.6372976593 2.2980047355 21.31179 21.49156
149.7652876306 2.2989829513 21.607456 21.609123
149.5516340259 2.2990459337 22.06478 21.918226
149.7478333433 2.2990301344 21.307215 21.329874
150.5402636141 2.2990972687 21.26833 21.288088
149.4672848743 2.2994932583 22.474697 22.415257
150.5819393034 2.2997036994 22.08654 22.163647
150.1038726336 2.2998732149 22.392893 22.37626
150.1347618133 2.298986146 22.398293 22.339506
150.7027322466 2.2996575555 21.663782 21.758081
150.1020324991 2.2984717011 21.559265 21.529894
150.1391838311 2.2998516485 22.538052 22.733166
150.1007271449 2.299198509 21.617912 21.651833
150.1993253729 2.2985298537 22.287489 22.017328
150.689264081 2.3002485966 21.683489 21.695616
150.577191748 2.3011481988 23.010017 22.978296
149.5652029081 2.3001899212 21.47974 21.346169
150.5444996815 2.3002181802 21.959898 21.97105
149.916113757 2.3015472725 22.600885 22.812387
150.6077779287 2.3000720186 20.494627 20.383121
150.5548711516 2.3010425066 21.961817 21.95741
150.3515621556 2.3017426258 20.883743 20.874422
150.2427102737 2.2993256799 19.692644 19.635376
150.6088759806 2.3006389947 20.591515 20.569643
149.9942723012 2.3029204198 23.269005 22.77086
150.5980322246 2.3014149028 22.553965 22.446432
150.2386973334 2.3024788527 22.046629 22.04508
150.0261730343 2.3019158289 21.632391 21.639433
149.9889368473 2.3030284229 22.774382 22.879286
149.4323918151 2.2998584566 21.050077 20.997559
149.5670918 2.3018279647 22.00017 22.075613
149.6139013954 2.3028087831 21.623894 21.626673
149.726443053 2.3026793191 21.912355 21.884539
149.9491160445 2.3029504788 21.278479 21.191387
149.63234837 2.3037347723 21.78991 21.833029
149.7480467617 2.3031553582 22.443968 22.409454
150.6505818466 2.3036936118 21.411247 21.398813
150.3880367266 2.3031624131 20.654308 20.659025
149.9845361983 2.3038627899 21.164822 21.200434
150.1969899795 2.3045042295 22.46734 22.552065
150.3813843932 2.304534817 22.034754 22.066664
149.63406855 2.3035165105 21.052101 21.163801
150.5564921995 2.3050697827 22.968954 22.737402
149.7904896116 2.3052274167 22.513834 22.495087
149.9062785593 2.3055753297 22.698145 22.712812
150.0235448865 2.3045329002 20.29139 20.126669
149.4854584063 2.3047337818 21.160513 21.11236
150.0646433514 2.3048379151 21.793625 21.731007
150.3814037949 2.3061323633 22.638472 22.598755
149.8681156519 2.3055217903 21.49312 21.368715
149.4462863088 2.3059362459 22.142893 22.125772
149.6402469602 2.3062829 22.623125 22.737658
149.9734327138 2.3066939252 22.317736 22.310543
150.0815521469 2.3062179122 21.670843 21.62949
149.863439348 2.3060697405 21.100235 21.064493
150.6758455231 2.3073663239 22.535587 22.59758
149.8195472207 2.3066647121 21.583366 21.579721
150.5757093634 2.3071899816 22.598503 22.899485
149.8944370322 2.3075762197 22.727818 22.8272
149.8984961036 2.3071045419 20.584497 20.626137
150.1108554501 2.3084458873 22.891935 22.874638
150.6194390381 2.3082248118 22.933212 22.921991
150.0799717237 2.3080775045 22.187017 22.16913
150.7098424409 2.3086892861 22.44692 22.638672
150.4859313165 2.3089017705 22.693731 22.811413
149.8972108755 2.3082262093 22.279503 22.079412
150.1841963319 2.3077688961 21.997692 22.024115
149.6160518993 2.3090479513 21.96762 22.026836
150.5222206953 2.3088136789 21.927454 21.929699
150.1547749298 2.3080272895 19.852173 19.835627
150.5069293532 2.309983713 22.297104 22.31564
149.8200107914 2.3097625745 21.848953 22.026077
150.2021268177 2.3101687576 21.989452 22.082838
149.9543675049 2.3095454699 21.111092 21.143358
149.4142067103 2.3101866559 21.925306 21.871565
149.8563786575 2.310697938 22.447792 22.405704
150.3225908471 2.3110988801 21.796633 21.814833
150.6212473033 2.3110320622 22.360292 22.263348
149.5753052725 2.3110873365 22.388659 22.256763
149.5378803798 2.3115851121 20.531233 20.451946
149.6913272971 2.3124606003 21.91322 21.790522
150.3585094449 2.3120722751 20.833265 20.87165
150.2705453819 2.3115726008 21.086687 21.090456
150.1699854266 2.3131214394 22.62398 22.693657
150.0413442174 2.3120199365 22.157253 22.145433
150.1216851868 2.3122697567 20.729921 20.661905
150.517190652 2.3134834741 22.065496 21.96579
149.5627498329 2.3138998869 21.833952 21.934275
150.4865052932 2.3137555419 21.346558 21.35594
150.7320831916 2.3145862332 22.390366 22.423006
150.0682435777 2.3148594184 22.500557 22.459452
150.7675643214 2.3151816986 22.375425 22.433136
149.8678171807 2.3148676707 21.046072 21.025537
150.629358312 2.3161071684 22.61963 22.581068
149.5314023129 2.315830534 22.640505 22.524776
149.8418036853 2.3161055443 22.342579 22.325851
149.5669401677 2.3157906543 21.010284 20.938927
150.7207907934 2.3138827931 20.509201 20.487465
150.5530128769 2.3147179627 22.913403 22.982124
150.3523343076 2.316594899 22.573298 22.700428
150.1324824425 2.3155626939 22.570189 22.612696
150.7179269853 2.3161296625 22.743769 22.986965
149.7085096934 2.3173715769 22.38358 22.3536
150.3153280837 2.3182684265 21.937695 21.812046
149.7890571471 2.3178849771 22.243473 22.17235
150.0525786914 2.3179552727 22.895475 22.755386
150.1112644519 2.3179679398 22.234116 22.222794
149.4973747879 2.3157126475 20.57487 20.59901
150.1381144652 2.318637748 22.20352 22.175707
